ply
format ascii 1.0
element vertex 1172
property float x
property float y
property float z
property uchar red
property uchar green
property uchar blue
end_header
1.770992 2.409438 -4.770021 192 184 165 
1.782096 2.409438 -4.770021 191 183 164 
1.793199 2.409438 -4.770021 190 183 164 
1.804303 2.409438 -4.770021 191 184 165 
1.816667 2.411111 -4.773334 191 183 164 
1.827778 2.411111 -4.773334 190 183 164 
1.837613 2.409438 -4.770021 190 183 164 
1.850000 2.411111 -4.773334 189 182 163 
1.861111 2.411111 -4.773334 188 183 164 
1.872222 2.411111 -4.773334 187 182 163 
1.883333 2.411111 -4.773334 187 182 163 
1.897079 2.414464 -4.779972 187 182 163 
1.908206 2.414464 -4.779972 187 182 163 
1.917999 2.412787 -4.776650 186 181 162 
1.927778 2.411111 -4.773334 186 181 162 
1.937543 2.409438 -4.770021 186 181 162 
1.948647 2.409438 -4.770021 186 181 162 
1.959750 2.409438 -4.770021 185 180 161 
1.972222 2.411111 -4.773334 186 181 162 
1.983333 2.411111 -4.773334 186 181 162 
1.993060 2.409438 -4.770021 187 182 163 
2.002774 2.407767 -4.766713 186 181 162 
2.248366 2.521423 -4.991721 184 179 160 
2.259985 2.521423 -4.991721 183 178 159 
2.273256 2.523256 -4.995349 184 179 160 
2.284884 2.523256 -4.995349 183 178 159 
1.975000 2.170000 -4.296000 183 178 159 
1.978816 2.163240 -4.282617 183 178 159 
1.987547 2.161893 -4.279950 182 177 158 
1.997509 2.161893 -4.279950 182 177 158 
2.003729 2.157862 -4.271970 181 176 157 
2.013673 2.157862 -4.271970 180 175 156 
2.022360 2.156522 -4.269317 180 175 156 
2.032298 2.156522 -4.269317 179 174 155 
2.039702 2.153846 -4.264020 179 174 155 
2.048357 2.152511 -4.261376 179 174 155 
2.057001 2.151177 -4.258736 180 175 156 
2.068196 2.152511 -4.261376 180 175 156 
2.474527 2.526929 -5.002620 180 175 156 
2.484364 2.525091 -4.998982 179 174 155 
2.494186 2.523256 -4.995349 179 174 155 
2.532084 2.503244 -4.955732 177 172 153 
2.539957 2.499640 -4.948596 177 172 153 
2.551476 2.499640 -4.948596 177 172 153 
2.561151 2.497842 -4.945036 177 172 153 
2.205034 2.131369 -4.219521 176 171 152 
2.212140 2.128755 -4.214347 176 171 152 
2.220588 2.127451 -4.211765 177 172 153 
2.230392 2.127451 -4.211765 177 172 153 
2.240196 2.127451 -4.211765 176 171 152 
2.183476 1.978348 -3.916581 175 169 151 
2.192593 1.978348 -3.916581 175 168 150 
2.201710 1.978348 -3.916581 175 168 149 
2.210826 1.978348 -3.916581 175 168 149 
2.319820 1.954955 -3.870270 175 168 150 
2.327518 1.953855 -3.868092 174 167 149 
2.333895 1.951658 -3.863744 174 167 149 
2.341573 1.950562 -3.861573 174 167 149 
2.347924 1.948373 -3.857239 174 167 149 
inf inf -inf 173 166 148 
inf inf -inf 173 166 148 
inf inf -inf 173 166 148 
inf inf -inf 173 166 148 
-22.984127 54.857143 -109.104767 202 194 175 
-22.730158 54.857143 -109.104767 202 194 175 
-22.476191 54.857143 -109.104767 202 194 175 
-0.689030 3.133273 -6.231732 205 199 178 
-0.671480 3.119133 -6.203610 205 199 178 
-0.656447 3.116321 -6.198016 205 198 177 
-0.642599 3.119133 -6.203610 206 198 177 
-0.628726 3.121951 -6.209214 206 198 177 
-0.614273 3.121951 -6.209214 205 197 176 
-0.599819 3.121951 -6.209214 205 197 175 
-0.585366 3.121951 -6.209214 206 198 176 
-0.570912 3.121951 -6.209214 197 189 166 
-0.556459 3.121951 -6.209214 184 176 153 
-0.542005 3.121951 -6.209214 200 192 170 
-0.527552 3.121951 -6.209214 205 197 176 
-0.513098 3.121951 -6.209214 205 197 176 
-0.499096 3.124774 -6.214828 204 196 177 
-0.484629 3.124774 -6.214828 203 196 177 
-0.471014 3.130435 -6.226087 203 196 177 
-0.456522 3.130435 -6.226087 203 196 177 
-0.445662 3.156164 -6.277260 203 196 177 
-0.433028 3.170642 -6.306055 204 196 177 
-0.419503 3.179393 -6.323459 204 196 177 
-0.390783 3.185253 -6.335115 204 196 177 
-0.345906 3.179393 -6.323459 204 196 177 
-0.330882 3.176471 -6.317647 204 196 177 
-0.316176 3.176471 -6.317647 205 197 178 
-0.301471 3.176471 -6.317647 204 196 177 
-0.286765 3.176471 -6.317647 204 196 177 
-0.227732 3.173554 -6.311846 204 196 177 
-0.213039 3.173554 -6.311846 204 196 177 
-0.198347 3.173554 -6.311846 204 196 177 
-0.183655 3.173554 -6.311846 204 196 177 
-0.169118 3.176471 -6.317647 204 196 177 
-0.154412 3.176471 -6.317647 204 196 177 
-0.139834 3.179393 -6.323459 205 197 178 
-0.125115 3.179393 -6.323459 204 196 177 
-0.110396 3.179393 -6.323459 204 196 177 
0.310811 5.837838 -11.610811 205 198 178 
0.337838 5.837838 -11.610811 205 198 178 
0.364865 5.837838 -11.610811 204 197 178 
0.391892 5.837838 -11.610811 203 196 178 
0.834821 1.928571 -3.835714 200 193 175 
0.843750 1.928571 -3.835714 200 193 175 
0.852679 1.928571 -3.835714 200 193 175 
0.861127 1.927496 -3.833575 199 192 174 
0.870050 1.927496 -3.833575 199 192 174 
0.878974 1.927496 -3.833575 199 192 174 
0.887897 1.927496 -3.833575 200 193 175 
1.036083 2.226804 -4.428866 200 193 175 
1.046392 2.226804 -4.428866 200 193 175 
0.826613 1.741935 -3.464516 200 193 175 
0.834677 1.741935 -3.464516 200 193 175 
0.842742 1.741935 -3.464516 200 193 175 
1.087629 2.226804 -4.428866 199 192 174 
1.097938 2.226804 -4.428866 199 192 174 
1.108247 2.226804 -4.428866 199 192 174 
1.118557 2.226804 -4.428866 199 192 174 
1.581560 3.063830 -6.093617 199 192 174 
1.588703 3.050309 -6.066726 199 192 174 
1.602824 3.050309 -6.066726 199 192 174 
1.615520 3.047619 -6.061376 198 193 174 
1.629630 3.047619 -6.061376 199 194 175 
1.642291 3.044934 -6.056036 199 194 175 
1.656388 3.044934 -6.056036 200 195 176 
1.671958 3.047619 -6.061376 200 195 176 
1.686067 3.047619 -6.061376 200 195 176 
1.700176 3.047619 -6.061376 200 195 176 
1.718833 3.055703 -6.077454 200 195 176 
1.742222 3.072000 -6.109867 199 194 175 
1.789855 3.130435 -6.226087 199 194 175 
1.836661 3.136116 -6.237387 199 192 174 
1.842818 3.121951 -6.209214 198 191 173 
1.857272 3.121951 -6.209214 197 190 172 
1.888594 3.055703 -6.077454 197 190 171 
1.316038 2.037736 -4.052830 195 188 169 
1.325472 2.037736 -4.052830 194 187 168 
1.335693 2.038938 -4.055221 195 187 168 
1.709116 2.405010 -4.783298 192 185 166 
1.719054 2.403338 -4.779972 191 184 165 
1.727778 2.400000 -4.773334 191 184 166 
1.738889 2.400000 -4.773334 191 184 165 
1.748786 2.398335 -4.770021 191 183 165 
1.759889 2.398335 -4.770021 192 184 165 
1.770992 2.398335 -4.770021 192 184 165 
1.782096 2.398335 -4.770021 191 184 165 
1.794444 2.400000 -4.773334 190 183 164 
1.805556 2.400000 -4.773334 190 183 164 
1.816667 2.400000 -4.773334 191 183 164 
1.827778 2.400000 -4.773334 191 183 164 
1.838889 2.400000 -4.773334 191 183 164 
1.850000 2.400000 -4.773334 190 183 164 
1.862404 2.401668 -4.776650 188 183 164 
1.873523 2.401668 -4.776650 187 182 163 
1.885953 2.403338 -4.779972 187 182 163 
1.897079 2.403338 -4.779972 187 182 163 
1.908206 2.403338 -4.779972 186 181 162 
1.919332 2.403338 -4.779972 186 181 162 
1.927778 2.400000 -4.773334 186 181 162 
1.937543 2.398335 -4.770021 186 181 162 
1.948647 2.398335 -4.770021 186 181 162 
1.959750 2.398335 -4.770021 186 181 162 
1.970854 2.398335 -4.770021 186 181 162 
1.981957 2.398335 -4.770021 186 181 162 
1.990298 2.395010 -4.763410 187 181 163 
2.001386 2.395010 -4.763410 187 182 163 
2.012474 2.395010 -4.763410 186 181 162 
2.022161 2.393352 -4.760111 186 181 162 
1.947170 2.173585 -4.323019 184 179 160 
1.952321 2.168130 -4.312171 184 179 160 
1.959900 2.165414 -4.306767 184 179 160 
1.966229 2.161351 -4.298687 183 178 159 
1.975000 2.160000 -4.296000 183 178 159 
1.978816 2.153271 -4.282617 183 178 159 
1.987547 2.151930 -4.279950 183 178 159 
1.997509 2.151930 -4.279950 182 177 158 
2.006223 2.150591 -4.277287 181 176 157 
2.016179 2.150591 -4.277287 180 175 156 
2.022360 2.146584 -4.269317 180 175 156 
2.031037 2.145252 -4.266667 180 175 156 
2.037175 2.141264 -4.258736 179 174 155 
2.047088 2.141264 -4.258736 179 174 155 
2.057001 2.141264 -4.258736 180 175 156 
2.068196 2.142591 -4.261376 180 175 156 
2.462882 2.515284 -5.002620 181 176 157 
2.472727 2.513454 -4.998982 180 175 156 
2.482558 2.511628 -4.995349 181 176 157 
2.494186 2.511628 -4.995349 180 175 156 
2.505814 2.511628 -4.995349 179 174 155 
2.539957 2.488121 -4.948596 176 171 152 
2.551476 2.488121 -4.948596 176 171 152 
2.561151 2.486331 -4.945036 176 171 152 
2.221950 2.118945 -4.214347 177 172 153 
2.174359 1.969231 -3.916581 175 169 150 
2.182232 1.968109 -3.914351 175 169 150 
2.191344 1.968109 -3.914351 175 168 150 
2.199203 1.966989 -3.912123 175 167 150 
2.205799 1.964753 -3.907675 175 167 149 
2.214895 1.964753 -3.907675 175 167 149 
2.240180 1.939394 -3.857239 174 167 149 
2.249158 1.939394 -3.857239 174 167 149 
2.258137 1.939394 -3.857239 175 168 150 
2.262038 1.935050 -3.848600 176 169 151 
2.269726 1.933968 -3.846447 177 170 152 
2.279955 1.935050 -3.848600 177 170 152 
2.288914 1.935050 -3.848600 175 168 150 
2.310811 1.945946 -3.870270 175 168 150 
2.318514 1.944851 -3.868092 175 168 150 
2.327518 1.944851 -3.868092 175 168 150 
2.335208 1.943757 -3.865917 174 167 149 
2.342889 1.942664 -3.863744 174 167 149 
2.351883 1.942664 -3.863744 174 167 149 
inf inf -inf 173 166 148 
inf inf -inf 173 166 148 
inf inf -inf 173 166 148 
inf inf -inf 173 166 148 
-22.984127 54.603176 -109.104767 202 194 175 
-22.730158 54.603176 -109.104767 203 194 175 
-22.476191 54.603176 -109.104767 203 194 175 
-0.687783 3.113122 -6.220453 205 199 177 
-0.671480 3.104693 -6.203610 205 199 177 
-0.655856 3.099099 -6.192432 205 199 177 
-0.642599 3.104693 -6.203610 205 198 177 
-0.628726 3.107498 -6.209214 206 198 177 
-0.614273 3.107498 -6.209214 205 197 176 
-0.599819 3.107498 -6.209214 205 197 176 
-0.585366 3.107498 -6.209214 206 198 175 
-0.570912 3.107498 -6.209214 197 189 166 
-0.556459 3.107498 -6.209214 186 178 155 
-0.542005 3.107498 -6.209214 201 193 171 
-0.528029 3.110307 -6.214828 206 198 177 
-0.513562 3.110307 -6.214828 205 197 176 
-0.499096 3.110307 -6.214828 204 196 177 
-0.484629 3.110307 -6.214828 204 196 177 
-0.471014 3.115942 -6.226087 203 196 177 
-0.456522 3.115942 -6.226087 203 196 177 
-0.444444 3.132969 -6.260109 203 196 177 
-0.330882 3.161765 -6.317647 204 196 177 
-0.316176 3.161765 -6.317647 205 197 178 
-0.301471 3.161765 -6.317647 204 196 177 
-0.286765 3.161765 -6.317647 204 196 177 
-0.154412 3.161765 -6.317647 204 196 177 
-0.139834 3.164673 -6.323459 205 197 178 
-0.125115 3.164673 -6.323459 205 197 178 
-0.110294 3.161765 -6.317647 204 196 177 
-0.095588 3.161765 -6.317647 205 197 178 
0.310287 5.801012 -11.591231 205 198 178 
0.337838 5.810811 -11.610811 205 198 179 
0.364865 5.810811 -11.610811 204 197 178 
0.391892 5.810811 -11.610811 203 196 178 
0.418919 5.810811 -11.610811 203 196 178 
0.500000 5.810811 -11.610811 203 196 178 
0.527027 5.810811 -11.610811 203 196 178 
1.221207 3.144424 -6.282998 201 196 177 
1.229091 3.127273 -6.248727 200 195 176 
1.242507 3.124432 -6.243052 200 195 176 
1.254760 3.118767 -6.231732 200 195 176 
1.266968 3.113122 -6.220453 200 195 176 
1.282609 3.115942 -6.226087 200 194 176 
1.297101 3.115942 -6.226087 200 193 175 
1.311594 3.115942 -6.226087 200 193 175 
0.843750 1.919643 -3.835714 200 193 175 
0.852679 1.919643 -3.835714 201 194 176 
0.861127 1.918572 -3.833575 200 193 175 
0.870050 1.918572 -3.833575 200 193 175 
0.878974 1.918572 -3.833575 200 193 175 
1.056701 2.216495 -4.428866 200 193 175 
0.834677 1.733871 -3.464516 200 193 175 
1.077320 2.216495 -4.428866 199 192 174 
1.108247 2.216495 -4.428866 200 193 175 
1.118557 2.216495 -4.428866 199 193 175 
1.582964 3.052351 -6.099024 199 192 174 
1.588703 3.036187 -6.066726 199 192 174 
1.602824 3.036187 -6.066726 199 193 175 
1.615520 3.033510 -6.061376 199 194 175 
1.628194 3.030837 -6.056036 200 194 176 
1.642291 3.030837 -6.056036 200 195 176 
1.656388 3.030837 -6.056036 200 195 176 
1.670485 3.030837 -6.056036 201 195 177 
1.686067 3.033510 -6.061376 200 195 176 
1.700176 3.033510 -6.061376 200 195 176 
1.721878 3.046944 -6.088220 200 195 176 
1.745325 3.063224 -6.120748 199 194 175 
1.793103 3.121597 -6.237387 199 194 175 
1.809264 3.124432 -6.243052 199 194 175 
1.822142 3.121597 -6.237387 200 193 175 
1.836661 3.121597 -6.237387 199 192 174 
1.847826 3.115942 -6.226087 197 190 172 
1.862319 3.115942 -6.226087 197 190 172 
1.316038 2.028302 -4.052830 195 188 169 
1.325472 2.028302 -4.052830 195 188 169 
1.334906 2.028302 -4.052830 195 187 168 
1.344340 2.028302 -4.052830 195 187 168 
1.351383 2.024720 -4.045674 195 187 168 
1.686848 2.393876 -4.783298 193 186 168 
1.697982 2.393876 -4.783298 192 185 167 
1.709116 2.393876 -4.783298 192 185 166 
1.717860 2.390549 -4.776650 192 185 166 
1.726579 2.387231 -4.770021 193 186 167 
1.737682 2.387231 -4.770021 192 185 166 
1.748786 2.387231 -4.770021 192 185 166 
1.759889 2.387231 -4.770021 193 185 166 
1.770992 2.387231 -4.770021 192 184 165 
1.783333 2.388889 -4.773334 191 184 165 
1.794444 2.388889 -4.773334 191 184 165 
1.805556 2.388889 -4.773334 191 184 165 
1.816667 2.388889 -4.773334 192 183 165 
1.827778 2.388889 -4.773334 192 182 164 
1.838889 2.388889 -4.773334 191 182 164 
1.850000 2.388889 -4.773334 190 183 164 
1.862404 2.390549 -4.776650 188 183 164 
1.873523 2.390549 -4.776650 188 183 164 
1.885953 2.392211 -4.779972 188 183 164 
1.897079 2.392211 -4.779972 187 182 163 
1.908206 2.392211 -4.779972 187 182 163 
1.917999 2.390549 -4.776650 187 182 163 
1.927778 2.388889 -4.773334 186 181 162 
1.937543 2.387231 -4.770021 186 181 162 
1.947295 2.385576 -4.766713 186 181 162 
1.958391 2.385576 -4.766713 186 181 162 
1.970854 2.387231 -4.770021 187 182 163 
1.981957 2.387231 -4.770021 187 182 163 
1.991678 2.385576 -4.766713 187 181 164 
2.001386 2.383922 -4.763410 187 182 165 
2.011080 2.382272 -4.760111 187 182 163 
2.019364 2.378977 -4.753527 186 181 162 
2.030429 2.378977 -4.753527 185 180 161 
1.938326 2.164884 -4.325739 183 178 159 
1.942284 2.158093 -4.312171 184 179 160 
1.951097 2.156740 -4.309467 184 179 160 
1.957447 2.152691 -4.301377 184 179 160 
1.966229 2.151345 -4.298687 184 179 160 
1.975000 2.150000 -4.296000 183 178 159 
1.977584 2.141968 -4.279950 183 178 159 
1.987547 2.141968 -4.279950 183 178 159 
1.996266 2.140635 -4.277287 182 177 158 
2.006223 2.140635 -4.277287 180 175 156 
2.014925 2.139303 -4.274627 180 175 156 
2.021105 2.135320 -4.266667 180 175 156 
2.028518 2.132672 -4.261376 179 174 155 
2.034653 2.128713 -4.253465 179 174 155 
2.045820 2.130031 -4.256099 180 175 156 
2.055727 2.130031 -4.256099 180 175 156 
2.453022 2.505462 -5.006264 181 176 157 
2.462882 2.503639 -5.002620 181 176 157 
2.472727 2.501818 -4.998982 181 176 157 
2.484364 2.501818 -4.998982 181 176 157 
2.494186 2.500000 -4.995349 180 175 156 
2.505814 2.500000 -4.995349 179 174 155 
2.515614 2.498184 -4.991721 179 174 155 
2.539957 2.476602 -4.948596 176 171 152 
2.551476 2.476602 -4.948596 176 171 152 
2.561151 2.474820 -4.945036 176 171 152 
2.203681 2.110430 -4.216933 177 172 153 
2.212140 2.109135 -4.214347 177 172 153 
2.221950 2.109135 -4.214347 177 173 154 
2.182232 1.958998 -3.914351 175 168 150 
2.190097 1.957883 -3.912123 175 168 150 
2.197952 1.956769 -3.909898 175 167 149 
2.204545 1.954545 -3.905455 175 166 149 
2.213636 1.954545 -3.905455 174 167 149 
2.310588 2.023530 -4.043294 174 167 149 
2.240180 1.930415 -3.857239 174 167 149 
2.249158 1.930415 -3.857239 174 167 149 
2.258137 1.930415 -3.857239 175 168 150 
2.262038 1.926092 -3.848600 176 169 151 
2.269726 1.925014 -3.846447 176 169 151 
2.279955 1.926092 -3.848600 176 169 151 
2.288914 1.926092 -3.848600 175 168 150 
2.309510 1.935847 -3.868092 175 168 150 
2.318514 1.935847 -3.868092 175 168 150 
2.327518 1.935847 -3.868092 175 168 150 
2.336522 1.935847 -3.868092 174 167 149 
2.345526 1.935847 -3.868092 174 167 149 
2.353206 1.934758 -3.865917 174 167 149 
inf inf -inf 173 166 148 
inf inf -inf 173 166 148 
inf inf -inf 173 166 148 
inf inf -inf 173 166 148 
-23.238094 54.349205 -109.104767 202 194 175 
-22.984127 54.349205 -109.104767 203 194 175 
-22.730158 54.349205 -109.104767 204 195 176 
-22.476191 54.349205 -109.104767 203 195 176 
-0.685921 3.090253 -6.203610 205 199 177 
-0.670875 3.087466 -6.198016 206 199 177 
-0.655856 3.084685 -6.192432 205 198 177 
-0.642020 3.087466 -6.198016 205 199 177 
-0.628726 3.093044 -6.209214 205 199 177 
-0.614828 3.095841 -6.214828 205 198 176 
-0.600362 3.095841 -6.214828 205 197 176 
-0.585366 3.093044 -6.209214 206 198 176 
-0.570912 3.093044 -6.209214 198 189 167 
-0.556459 3.093044 -6.209214 188 178 157 
-0.542495 3.095841 -6.214828 203 193 172 
-0.528029 3.095841 -6.214828 206 197 178 
-0.513562 3.095841 -6.214828 204 196 177 
-0.499096 3.095841 -6.214828 204 196 177 
-0.484629 3.095841 -6.214828 204 196 178 
-0.471014 3.101449 -6.226087 203 196 178 
-0.456522 3.101449 -6.226087 204 197 178 
-0.443636 3.112727 -6.248727 204 197 178 
-0.431050 3.126941 -6.277260 204 196 177 
-0.418733 3.144169 -6.311846 204 196 177 
-0.389706 3.147059 -6.317647 204 196 177 
-0.330882 3.147059 -6.317647 204 196 177 
-0.316176 3.147059 -6.317647 204 196 177 
-0.301194 3.144169 -6.311846 204 196 177 
-0.286501 3.144169 -6.311846 204 196 177 
-0.125115 3.149954 -6.323459 205 197 178 
-0.110294 3.147059 -6.317647 205 197 178 
-0.095588 3.147059 -6.317647 205 197 178 
0.283305 5.774030 -11.591231 205 197 177 
0.310287 5.774030 -11.591231 204 197 177 
0.337838 5.783784 -11.610811 205 197 178 
0.364865 5.783784 -11.610811 205 198 179 
0.391892 5.783784 -11.610811 204 197 178 
0.418919 5.783784 -11.610811 204 197 178 
0.445946 5.783784 -11.610811 204 197 178 
0.472973 5.783784 -11.610811 205 197 178 
0.500000 5.783784 -11.610811 205 197 178 
0.524370 5.754622 -11.552269 204 196 178 
0.550336 5.744967 -11.532887 204 196 178 
1.208791 3.135531 -6.294506 202 195 177 
1.214545 3.112727 -6.248727 202 196 177 
1.227975 3.109900 -6.243052 201 195 177 
1.240254 3.104261 -6.231732 201 195 176 
1.252489 3.098643 -6.220453 202 195 177 
1.265823 3.095841 -6.214828 202 195 177 
1.281448 3.098643 -6.220453 201 194 176 
1.294756 3.095841 -6.214828 200 193 175 
1.308040 3.093044 -6.209214 200 193 175 
1.322493 3.093044 -6.209214 201 194 176 
1.572954 3.046263 -6.115303 200 193 175 
1.582964 3.038154 -6.099024 199 192 174 
1.590106 3.024735 -6.072085 200 193 175 
1.602824 3.022065 -6.066726 200 193 175 
1.614097 3.016740 -6.056036 200 193 175 
1.628194 3.016740 -6.056036 200 193 175 
1.642291 3.016740 -6.056036 199 193 175 
1.656388 3.016740 -6.056036 201 195 176 
1.671958 3.019400 -6.061376 201 195 176 
1.687555 3.022065 -6.066726 200 195 176 
1.716830 3.048976 -6.120748 200 195 176 
1.731077 3.048976 -6.120748 200 195 176 
1.785064 3.118397 -6.260109 199 194 175 
1.799636 3.118397 -6.260109 199 194 175 
1.814208 3.118397 -6.260109 199 194 175 
1.823797 3.109900 -6.243052 199 193 174 
1.836661 3.107078 -6.237387 199 192 174 
1.849501 3.104261 -6.231732 197 190 172 
1.865699 3.107078 -6.237387 197 190 172 
1.885350 3.115560 -6.254413 198 191 173 
1.306604 2.018868 -4.052830 197 189 169 
1.315262 2.017678 -4.050442 195 188 168 
1.325472 2.018868 -4.052830 195 188 169 
1.334119 2.017678 -4.050442 195 188 169 
1.341966 2.015303 -4.045674 195 187 168 
1.349001 2.011751 -4.038543 196 188 169 
1.358402 2.011751 -4.038543 196 188 169 
1.686848 2.382742 -4.783298 193 186 167 
1.697982 2.382742 -4.783298 193 186 167 
1.707928 2.381085 -4.779972 192 185 166 
1.716667 2.377778 -4.773334 192 185 166 
1.726579 2.376128 -4.770021 193 186 167 
1.737682 2.376128 -4.770021 193 186 167 
1.748786 2.376128 -4.770021 192 185 166 
1.759889 2.376128 -4.770021 192 185 166 
1.770992 2.376128 -4.770021 192 184 165 
1.782096 2.376128 -4.770021 192 185 166 
1.794444 2.377778 -4.773334 191 184 165 
1.805556 2.377778 -4.773334 191 185 166 
1.816667 2.377778 -4.773334 191 184 165 
1.827778 2.377778 -4.773334 191 183 164 
1.838889 2.377778 -4.773334 190 183 164 
1.851286 2.379430 -4.776650 189 183 164 
1.862404 2.379430 -4.776650 188 183 164 
1.873523 2.379430 -4.776650 188 183 164 
1.885953 2.381085 -4.779972 188 183 164 
1.897079 2.381085 -4.779972 188 183 164 
1.908206 2.381085 -4.779972 187 182 163 
1.917999 2.379430 -4.776650 187 182 163 
1.927778 2.377778 -4.773334 187 182 163 
1.937543 2.376128 -4.770021 186 181 162 
1.947295 2.374480 -4.766713 186 181 162 
1.958391 2.374480 -4.766713 186 181 162 
1.970854 2.376128 -4.770021 187 182 163 
1.981957 2.376128 -4.770021 187 182 163 
1.991678 2.374480 -4.766713 188 182 164 
2.002774 2.374480 -4.766713 187 182 164 
2.012474 2.372834 -4.763410 187 182 163 
2.019364 2.367912 -4.753527 187 182 163 
2.030429 2.367912 -4.753527 186 181 162 
1.938326 2.154814 -4.325739 183 178 159 
1.942284 2.148055 -4.312171 184 179 160 
1.951097 2.146708 -4.309467 184 179 160 
1.959900 2.145363 -4.306767 184 179 160 
1.967459 2.142678 -4.301377 184 179 160 
1.976235 2.141338 -4.298687 183 178 159 
1.977584 2.132005 -4.279950 183 178 159 
1.987547 2.132005 -4.279950 183 178 159 
1.996266 2.130678 -4.277287 182 177 158 
2.006223 2.130678 -4.277287 181 176 157 
2.013673 2.128030 -4.271970 180 175 156 
2.019851 2.124069 -4.264020 180 175 156 
2.026006 2.120124 -4.256099 179 174 155 
2.034653 2.118812 -4.253465 179 174 155 
2.045820 2.120124 -4.256099 180 175 156 
2.453022 2.493809 -5.006264 181 176 157 
2.462882 2.491994 -5.002620 181 176 157 
2.472727 2.490182 -4.998982 181 176 157 
2.482558 2.488372 -4.995349 181 176 157 
2.494186 2.488372 -4.995349 180 175 156 
2.503994 2.486565 -4.991721 179 174 155 
2.513788 2.484761 -4.988099 178 173 154 
2.525399 2.484761 -4.988099 178 173 154 
2.535170 2.482959 -4.984482 178 173 154 
2.535740 2.472202 -4.962888 177 172 153 
2.541787 2.466859 -4.952161 177 172 153 
2.553314 2.466859 -4.952161 176 171 152 
2.561151 2.463309 -4.945036 176 171 152 
2.193865 2.100614 -4.216933 177 172 153 
2.202330 2.099326 -4.214347 177 172 153 
2.212140 2.099326 -4.214347 177 172 153 
2.190097 1.948776 -3.912123 174 167 149 
2.199203 1.948776 -3.912123 174 166 149 
2.208310 1.948776 -3.912123 174 167 149 
2.290417 2.012933 -4.040917 175 167 149 
2.310588 2.014118 -4.043294 174 167 149 
3.495146 3.022065 -6.066726 174 167 150 
3.509267 3.022065 -6.066726 174 167 149 
3.520282 3.019400 -6.061376 174 167 148 
3.531277 3.016740 -6.056036 174 167 148 
3.545374 3.016740 -6.056036 175 168 149 
3.559471 3.016740 -6.056036 176 169 151 
3.570423 3.014085 -6.050704 176 169 151 
3.584507 3.014085 -6.050704 176 169 151 
3.598592 3.014085 -6.050704 175 168 150 
3.612676 3.014085 -6.050704 175 168 150 
2.319820 1.927928 -3.870270 175 168 150 
2.327518 1.926843 -3.868092 175 168 150 
2.336522 1.926843 -3.868092 174 167 149 
2.345526 1.926843 -3.868092 174 167 149 
inf inf -inf 173 166 148 
inf inf -inf 173 166 148 
inf inf -inf 173 166 148 
inf inf -inf 174 167 149 
-27.622641 64.301888 -129.690567 202 195 175 
-27.320755 64.301888 -129.690567 203 194 175 
-27.018867 64.301888 -129.690567 203 194 175 
-26.716982 64.301888 -129.690567 202 195 176 
-0.700361 3.075812 -6.203610 206 200 178 
-0.684068 3.067507 -6.186859 206 200 178 
-0.670875 3.073039 -6.198016 206 198 177 
-0.655856 3.070270 -6.192432 205 198 176 
-0.642020 3.073039 -6.198016 205 199 177 
-0.629295 3.081374 -6.214828 205 199 177 
-0.614828 3.081374 -6.214828 205 198 177 
-0.600362 3.081374 -6.214828 205 197 176 
-0.585895 3.081374 -6.214828 207 199 176 
-0.571429 3.081374 -6.214828 198 190 167 
-0.556962 3.081374 -6.214828 188 179 158 
-0.542495 3.081374 -6.214828 203 193 173 
-0.528029 3.081374 -6.214828 206 197 177 
-0.513562 3.081374 -6.214828 204 196 177 
-0.499548 3.084163 -6.220453 204 196 177 
-0.484629 3.081374 -6.214828 204 196 177 
-0.471014 3.086957 -6.226087 204 197 178 
-0.456522 3.086957 -6.226087 204 197 178 
-0.443636 3.098182 -6.248727 204 197 178 
-0.429481 3.101001 -6.254413 204 196 177 
-0.418349 3.126606 -6.306055 204 196 177 
-0.403670 3.126606 -6.306055 204 196 177 
-0.389348 3.129477 -6.311846 205 197 178 
-0.315886 3.129477 -6.311846 204 196 177 
-0.301194 3.129477 -6.311846 204 196 177 
-0.286501 3.129477 -6.311846 204 196 177 
-0.110294 3.132353 -6.317647 205 197 178 
-0.095588 3.132353 -6.317647 205 197 178 
0.283305 5.747049 -11.591231 204 196 177 
0.310287 5.747049 -11.591231 204 196 177 
0.337268 5.747049 -11.591231 205 197 178 
0.364865 5.756757 -11.610811 204 197 178 
0.391892 5.756757 -11.610811 204 197 178 
0.418919 5.756757 -11.610811 204 197 178 
0.445946 5.756757 -11.610811 205 197 178 
0.472973 5.756757 -11.610811 205 197 178 
0.500000 5.756757 -11.610811 205 197 178 
0.524370 5.727731 -11.552269 205 197 178 
0.550336 5.718121 -11.532887 204 197 178 
0.578151 5.727731 -11.552269 204 197 178 
1.198529 3.132353 -6.317647 203 196 178 
1.213235 3.132353 -6.317647 202 195 177 
1.223443 3.120879 -6.294506 202 195 177 
1.229091 3.098182 -6.248727 202 195 177 
1.242507 3.095368 -6.243052 201 194 176 
1.254760 3.089755 -6.231732 202 195 177 
1.266968 3.084163 -6.220453 202 195 177 
1.281448 3.084163 -6.220453 201 194 176 
1.293586 3.078591 -6.209214 201 194 176 
1.306859 3.075812 -6.203610 201 194 176 
1.321300 3.075812 -6.203610 201 194 176 
1.568767 3.023957 -6.099024 200 193 175 
1.584369 3.026643 -6.104441 199 192 174 
1.591512 3.013263 -6.077454 199 192 174 
1.604240 3.010601 -6.072085 199 192 174 
1.616946 3.007944 -6.066726 200 193 175 
1.628194 3.002643 -6.056036 200 193 175 
1.820841 3.115174 -6.282998 199 194 175 
1.833790 3.112329 -6.277260 199 193 175 
1.846715 3.109489 -6.271533 199 192 174 
1.856233 3.101001 -6.254413 198 191 173 
1.870792 3.101001 -6.254413 198 191 173 
1.885350 3.101001 -6.254413 197 190 172 
1.901639 3.103825 -6.260109 197 190 172 
1.277549 2.008250 -4.050442 196 189 170 
1.286977 2.008250 -4.050442 196 189 170 
1.295642 2.007067 -4.048057 197 190 170 
1.305065 2.007067 -4.048057 197 189 170 
1.314488 2.007067 -4.048057 196 188 169 
1.324691 2.008250 -4.050442 195 188 169 
1.333333 2.007067 -4.048057 195 188 169 
1.341966 2.005886 -4.045674 195 187 168 
1.349001 2.002350 -4.038543 196 188 169 
1.358402 2.002350 -4.038543 196 188 169 
1.696801 2.369958 -4.779972 193 186 167 
1.706741 2.368311 -4.776650 193 186 167 
1.716667 2.366667 -4.773334 193 186 167 
1.725381 2.363384 -4.766713 193 186 167 
1.736477 2.363384 -4.766713 193 186 167 
1.747573 2.363384 -4.766713 192 185 166 
1.758669 2.363384 -4.766713 193 185 166 
1.769764 2.363384 -4.766713 192 185 166 
1.780860 2.363384 -4.766713 192 185 166 
1.793199 2.365024 -4.770021 191 184 165 
1.805556 2.366667 -4.773334 191 184 165 
1.827778 2.366667 -4.773334 190 183 164 
1.840167 2.368311 -4.776650 190 183 165 
1.851286 2.368311 -4.776650 189 183 165 
1.862404 2.368311 -4.776650 189 184 165 
1.873523 2.368311 -4.776650 188 183 164 
1.885953 2.369958 -4.779972 188 183 164 
1.897079 2.369958 -4.779972 187 182 163 
1.908206 2.369958 -4.779972 187 182 163 
1.917999 2.368311 -4.776650 187 182 163 
1.927778 2.366667 -4.773334 187 182 163 
1.937543 2.365024 -4.770021 186 181 162 
1.947295 2.363384 -4.766713 186 181 162 
1.958391 2.363384 -4.766713 187 182 163 
1.970854 2.365024 -4.770021 187 182 163 
1.981957 2.365024 -4.770021 187 182 163 
1.991678 2.363384 -4.766713 187 182 163 
2.002774 2.363384 -4.766713 187 182 163 
2.013870 2.363384 -4.766713 187 182 163 
2.022161 2.360111 -4.760111 187 182 163 
2.033241 2.360111 -4.760111 186 181 162 
1.939547 2.146096 -4.328464 183 178 159 
1.942284 2.138018 -4.312171 183 178 159 
1.951097 2.136677 -4.309467 184 179 160 
1.959900 2.135338 -4.306767 184 179 160 
1.968691 2.134001 -4.304070 184 179 160 
1.977472 2.132666 -4.301377 183 178 159 
1.980050 2.124688 -4.285287 183 178 159 
1.988785 2.123364 -4.282617 183 178 159 
1.997509 2.122042 -4.279950 182 177 158 
2.006223 2.120722 -4.277287 181 176 157 
2.012422 2.116770 -4.269317 180 175 156 
2.019851 2.114144 -4.264020 180 175 156 
2.024752 2.108911 -4.253465 180 175 156 
2.034653 2.108911 -4.253465 180 175 156 
2.446715 2.487591 -5.017226 180 175 156 
2.451237 2.480349 -5.002620 180 175 156 
2.461091 2.478545 -4.998982 181 176 157 
2.470930 2.476744 -4.995349 180 175 156 
2.482558 2.476744 -4.995349 180 175 156 
2.494186 2.476744 -4.995349 180 175 156 
2.503994 2.474946 -4.991721 180 175 156 
2.513788 2.473150 -4.988099 178 173 154 
2.523568 2.471356 -4.984482 178 173 154 
2.531499 2.467777 -4.977263 178 173 154 
2.532084 2.457102 -4.955732 177 172 153 
2.541787 2.455331 -4.952161 177 172 153 
2.553314 2.455331 -4.952161 177 172 153 
2.562995 2.453564 -4.948596 177 172 153 
2.193865 2.090798 -4.216933 177 172 153 
2.202330 2.089516 -4.214347 178 173 154 
2.212140 2.089516 -4.214347 177 172 153 
3.485359 3.023957 -6.099024 174 167 149 
3.502664 3.026643 -6.104441 175 168 150 
3.495146 3.007944 -6.066726 174 167 150 
3.506173 3.005291 -6.061376 174 167 150 
3.520282 3.005291 -6.061376 174 167 149 
3.531277 3.002643 -6.056036 174 167 149 
3.545374 3.002643 -6.056036 175 168 150 
3.559471 3.002643 -6.056036 176 169 151 
3.573568 3.002643 -6.056036 176 169 151 
3.584507 3.000000 -6.050704 176 169 151 
3.598592 3.000000 -6.050704 175 168 150 
3.615859 3.002643 -6.056036 174 167 149 
3.626760 3.000000 -6.050704 175 168 150 
2.328829 1.918919 -3.870270 174 167 149 
2.336522 1.917839 -3.868092 174 167 149 
inf inf -inf 173 166 148 
inf inf -inf 173 166 148 
inf inf -inf 173 166 148 
inf inf -inf 173 166 148 
-23.238094 53.841270 -109.104767 203 195 174 
-27.320755 64.000000 -129.690567 203 193 174 
-27.018867 64.000000 -129.690567 203 194 175 
-26.716982 64.000000 -129.690567 202 195 176 
-0.694718 3.036705 -6.153626 206 200 178 
-0.683453 3.050360 -6.181295 205 199 177 
-0.669667 3.053105 -6.186859 205 199 177 
-0.655856 3.055856 -6.192432 205 199 177 
-0.642020 3.058611 -6.198016 205 199 177 
-0.629295 3.066908 -6.214828 204 199 177 
-0.614828 3.066908 -6.214828 205 198 176 
-0.600362 3.066908 -6.214828 206 198 176 
-0.585895 3.066908 -6.214828 207 200 177 
-0.571429 3.066908 -6.214828 198 191 167 
-0.556962 3.066908 -6.214828 189 181 160 
-0.542495 3.066908 -6.214828 204 194 175 
-0.528029 3.066908 -6.214828 206 197 178 
-0.513562 3.066908 -6.214828 205 197 178 
-0.499548 3.069683 -6.220453 204 196 177 
-0.484629 3.066908 -6.214828 203 196 177 
-0.471014 3.072464 -6.226087 203 196 177 
-0.456522 3.072464 -6.226087 203 196 177 
-0.443233 3.080836 -6.243052 204 196 177 
-0.429481 3.086442 -6.254413 204 196 177 
-0.417582 3.106227 -6.294506 204 196 177 
-0.403670 3.111927 -6.306055 205 197 178 
-0.388991 3.111927 -6.306055 205 197 178 
-0.374656 3.114784 -6.311846 205 197 178 
-0.315886 3.114784 -6.311846 205 197 178 
-0.300917 3.111927 -6.306055 205 197 178 
-0.286501 3.114784 -6.311846 205 197 178 
0.255462 5.700840 -11.552269 204 196 177 
0.282353 5.700840 -11.552269 203 195 176 
0.310287 5.720068 -11.591231 204 196 177 
0.337268 5.720068 -11.591231 204 196 177 
0.364865 5.729730 -11.610811 204 196 177 
0.391892 5.729730 -11.610811 204 196 177 
0.418919 5.729730 -11.610811 204 197 178 
0.500000 5.729730 -11.610811 206 198 179 
0.527027 5.729730 -11.610811 206 198 179 
0.552189 5.710438 -11.571717 205 198 179 
1.243636 3.083636 -6.248727 202 195 177 
1.258182 3.083636 -6.248727 202 195 177 
1.270417 3.078040 -6.237387 202 195 177 
1.281448 3.069683 -6.220453 202 195 177 
1.293586 3.064137 -6.209214 201 194 176 
1.306859 3.061372 -6.203610 201 194 176 
1.320108 3.058611 -6.198016 201 194 176 
1.578571 3.028571 -6.137143 199 192 174 
1.592857 3.028571 -6.137143 199 192 174 
1.601424 3.017794 -6.115303 199 192 174 
1.612789 3.012433 -6.104441 199 192 174 
1.619805 2.999116 -6.077454 199 193 175 
1.829201 3.114784 -6.311846 199 194 175 
1.838828 3.106227 -6.294506 199 193 175 
1.851784 3.103385 -6.288747 199 192 174 
1.863014 3.097717 -6.277260 198 191 173 
1.872495 3.089253 -6.260109 198 191 173 
1.887067 3.089253 -6.260109 198 191 173 
1.906849 3.097717 -6.277260 197 190 172 
1.267373 1.997644 -4.048057 197 190 172 
1.276045 1.996469 -4.045674 197 190 171 
1.285462 1.996469 -4.045674 196 189 171 
1.294118 1.995294 -4.043294 197 189 170 
1.303529 1.995294 -4.043294 197 189 170 
1.313714 1.996469 -4.045674 196 188 169 
1.323910 1.997644 -4.048057 195 188 169 
1.333333 1.997644 -4.048057 195 188 169 
1.341966 1.996469 -4.045674 196 188 169 
1.349001 1.992949 -4.038543 196 188 169 
1.357604 1.991779 -4.036171 196 188 169 
1.696801 2.358832 -4.779972 194 187 168 
1.705556 2.355556 -4.773334 194 186 167 
1.715475 2.353921 -4.770021 194 186 167 
1.724186 2.350658 -4.763410 194 186 167 
1.735274 2.350658 -4.763410 194 186 167 
1.746362 2.350658 -4.763410 194 186 167 
1.757450 2.350658 -4.763410 194 186 167 
1.768538 2.350658 -4.763410 193 185 166 
1.780860 2.352288 -4.766713 192 184 165 
1.791956 2.352288 -4.766713 191 184 165 
1.804303 2.353921 -4.770021 191 184 165 
1.840167 2.357193 -4.776650 190 184 165 
1.851286 2.357193 -4.776650 189 183 164 
1.862404 2.357193 -4.776650 188 183 164 
1.874826 2.358832 -4.779972 188 183 164 
1.885953 2.358832 -4.779972 188 183 164 
1.897079 2.358832 -4.779972 188 183 164 
1.908206 2.358832 -4.779972 187 182 163 
1.919332 2.358832 -4.779972 187 182 163 
1.929117 2.357193 -4.776650 187 182 163 
1.937543 2.353921 -4.770021 187 182 163 
1.948647 2.353921 -4.770021 187 182 163 
1.959750 2.353921 -4.770021 186 181 162 
1.972222 2.355556 -4.773334 187 182 163 
1.981957 2.353921 -4.770021 187 182 163 
1.993060 2.353921 -4.770021 187 182 163 
2.002774 2.352288 -4.766713 187 182 163 
2.013870 2.352288 -4.766713 186 181 162 
2.024965 2.352288 -4.766713 186 181 162 
1.930687 2.137366 -4.331191 182 177 158 
1.939547 2.136020 -4.328464 183 178 159 
1.942284 2.127980 -4.312171 183 178 159 
1.951097 2.126646 -4.309467 183 178 159 
1.959900 2.125313 -4.306767 184 179 160 
1.969925 2.125313 -4.306767 183 178 159 
1.977472 2.122653 -4.301377 183 178 159 
1.983760 2.118676 -4.293317 183 178 159 
1.991266 2.116032 -4.287960 183 178 159 
1.998754 2.113396 -4.282617 182 177 158 
2.008723 2.113396 -4.282617 182 177 158 
2.011173 2.105525 -4.266667 181 176 157 
2.019851 2.104218 -4.264020 181 176 157 
2.028518 2.102914 -4.261376 180 175 156 
2.435036 2.475912 -5.017226 180 175 156 
2.439592 2.468704 -5.002620 181 176 157 
2.449455 2.466909 -4.998982 180 175 156 
2.459302 2.465116 -4.995349 181 176 157 
2.470930 2.465116 -4.995349 180 175 156 
2.482558 2.465116 -4.995349 179 174 155 
2.492375 2.463326 -4.991721 180 175 156 
2.502177 2.461539 -4.988099 180 175 156 
2.511965 2.459754 -4.984482 179 174 155 
2.519913 2.456191 -4.977263 178 173 154 
2.529667 2.454414 -4.973661 178 173 154 
2.532084 2.445566 -4.955732 178 173 154 
2.539957 2.442045 -4.948596 177 172 153 
2.553314 2.443804 -4.952161 178 173 154 
2.564842 2.443804 -4.952161 178 173 154 
2.581949 2.449097 -4.962888 178 173 154 
2.203681 2.080981 -4.216933 178 173 154 
3.488455 3.012433 -6.104441 174 167 149 
3.499556 3.009760 -6.099024 175 168 150 
3.492064 2.991182 -6.061376 174 167 149 
3.506173 2.991182 -6.061376 174 167 149 
3.517181 2.988546 -6.056036 174 167 149 
3.531277 2.988546 -6.056036 174 167 149 
3.545374 2.988546 -6.056036 175 168 150 
3.559471 2.988546 -6.056036 176 169 151 
3.573568 2.988546 -6.056036 176 169 151 
3.584507 2.985915 -6.050704 176 169 151 
3.598592 2.985915 -6.050704 175 168 150 
3.615859 2.988546 -6.056036 174 167 149 
3.629956 2.988546 -6.056036 174 167 149 
inf inf -inf 173 166 148 
inf inf -inf 173 166 148 
inf inf -inf 173 166 148 
inf inf -inf 173 166 148 
-3.574879 8.154590 -16.602900 201 195 174 
-27.622641 63.698112 -129.690567 202 194 173 
-27.320755 63.698112 -129.690567 203 193 173 
-27.018867 63.698112 -129.690567 203 194 175 
-26.716982 63.698112 -129.690567 202 195 176 
-26.923077 64.923080 -132.184616 201 194 175 
-0.684068 3.038704 -6.186859 206 200 178 
-0.669667 3.038704 -6.186859 205 199 177 
-0.655856 3.041441 -6.192432 205 199 177 
-0.642020 3.044184 -6.198016 205 199 177 
-0.629295 3.052441 -6.214828 205 199 177 
-0.614828 3.052441 -6.214828 206 198 178 
-0.600362 3.052441 -6.214828 206 198 177 
-0.585895 3.052441 -6.214828 206 200 177 
-0.571429 3.052441 -6.214828 196 190 166 
-0.556962 3.052441 -6.214828 190 182 161 
-0.542495 3.052441 -6.214828 204 194 175 
-0.528029 3.052441 -6.214828 206 197 178 
-0.514027 3.055204 -6.220453 204 196 177 
-0.499548 3.055204 -6.220453 203 196 177 
-0.485068 3.055204 -6.220453 203 196 177 
-0.471014 3.057971 -6.226087 203 196 177 
-0.456522 3.057971 -6.226087 204 197 178 
-0.442430 3.060743 -6.231732 204 197 178 
-0.429872 3.074681 -6.260109 204 196 177 
-0.402930 3.091575 -6.294506 206 198 179 
-0.387923 3.088747 -6.288747 206 198 179 
-0.374312 3.097248 -6.306055 205 197 178 
-0.300917 3.097248 -6.306055 205 197 178 
0.255462 5.673950 -11.552269 204 196 177 
0.282353 5.673950 -11.552269 204 196 177 
0.310287 5.693086 -11.591231 204 196 177 
0.337268 5.693086 -11.591231 204 196 177 
0.364250 5.693086 -11.591231 205 197 178 
0.391892 5.702703 -11.610811 205 197 178 
1.227941 3.102941 -6.317647 203 196 178 
1.245902 3.074681 -6.260109 202 195 177 
1.295928 3.055204 -6.220453 202 195 177 
1.308040 3.049684 -6.209214 202 195 177 
1.320108 3.044184 -6.198016 202 195 177 
1.334536 3.044184 -6.198016 201 194 176 
1.578571 3.014286 -6.137143 200 193 175 
1.592857 3.014286 -6.137143 199 192 174 
1.607143 3.014286 -6.137143 199 192 174 
1.845588 3.102941 -6.317647 199 194 175 
1.855179 3.094409 -6.300275 199 192 174 
1.866423 3.088747 -6.288747 198 191 173 
1.877626 3.083105 -6.277260 198 191 173 
1.892237 3.083105 -6.277260 198 191 173 
1.257210 1.987051 -4.045674 198 191 173 
1.265138 1.984715 -4.040917 197 190 172 
1.274544 1.984715 -4.040917 197 190 172 
1.283951 1.984715 -4.040917 197 189 171 
1.293357 1.984715 -4.040917 196 189 170 
1.303529 1.985882 -4.043294 197 189 170 
1.312941 1.985882 -4.043294 196 189 170 
1.323910 1.988221 -4.048057 195 188 169 
1.332548 1.987051 -4.045674 196 188 169 
1.341177 1.985882 -4.043294 196 188 169 
1.348209 1.982384 -4.036171 196 188 169 
1.357604 1.982384 -4.036171 196 188 169 
1.695622 2.346074 -4.776650 194 186 167 
1.705556 2.344445 -4.773334 194 186 167 
1.715475 2.342818 -4.770021 194 186 167 
1.724186 2.339570 -4.763410 193 185 166 
1.735274 2.339570 -4.763410 194 186 167 
1.746362 2.339570 -4.763410 194 186 167 
1.757450 2.339570 -4.763410 194 186 167 
1.768538 2.339570 -4.763410 193 185 166 
1.780860 2.341193 -4.766713 192 185 166 
1.791956 2.341193 -4.766713 191 184 165 
1.804303 2.342818 -4.770021 191 184 165 
1.996983 2.546003 -5.183711 190 184 165 
1.852573 2.347705 -4.779972 188 183 164 
1.863700 2.347705 -4.779972 188 183 164 
1.874826 2.347705 -4.779972 188 183 164 
1.887265 2.349339 -4.783298 188 183 164 
1.898399 2.349339 -4.783298 188 183 164 
1.909534 2.349339 -4.783298 188 183 164 
1.919332 2.347705 -4.779972 188 183 164 
1.929117 2.346074 -4.776650 187 182 163 
1.938889 2.344445 -4.773334 187 182 163 
1.948647 2.342818 -4.770021 187 182 163 
1.961111 2.344445 -4.773334 186 181 162 
1.972222 2.344445 -4.773334 187 182 163 
1.983333 2.344445 -4.773334 187 182 163 
1.994444 2.344445 -4.773334 187 182 163 
2.004164 2.342818 -4.770021 187 182 163 
2.015267 2.342818 -4.770021 186 181 162 
1.924242 2.131313 -4.339394 183 178 159 
1.930687 2.127284 -4.331191 183 178 159 
1.939547 2.125945 -4.328464 183 178 159 
1.941066 2.116614 -4.309467 183 178 159 
1.949875 2.115288 -4.306767 183 178 159 
1.959900 2.115288 -4.306767 183 178 159 
1.969925 2.115288 -4.306767 183 178 159 
1.978710 2.113964 -4.304070 183 178 159 
1.985000 2.110000 -4.296000 183 178 159 
1.993754 2.108682 -4.293317 182 177 158 
2.001248 2.106051 -4.287960 182 177 158 
2.009975 2.104738 -4.285287 182 177 158 
2.011173 2.095593 -4.266667 181 176 157 
2.019851 2.094293 -4.264020 181 176 157 
2.031037 2.095593 -4.266667 181 176 157 
2.419825 2.460641 -5.009912 181 176 157 
2.426182 2.455273 -4.998982 181 176 157 
2.437818 2.455273 -4.998982 181 176 157 
2.447675 2.453488 -4.995349 181 176 157 
2.459302 2.453488 -4.995349 180 175 156 
2.470930 2.453488 -4.995349 180 175 156 
2.482558 2.453488 -4.995349 179 174 155 
2.490566 2.449927 -4.988099 180 175 156 
2.500363 2.448151 -4.984482 179 174 155 
2.510145 2.446377 -4.980870 179 174 155 
2.518090 2.442837 -4.973661 178 173 154 
2.529667 2.442837 -4.973661 178 173 154 
2.532084 2.434030 -4.955732 178 173 154 
2.539957 2.430526 -4.948596 178 173 154 
2.551476 2.430526 -4.948596 178 173 154 
2.564842 2.432277 -4.952161 178 173 154 
3.493357 2.990257 -6.088220 175 168 149 
3.492064 2.977072 -6.061376 175 168 149 
3.506173 2.977072 -6.061376 174 167 149 
3.517181 2.974449 -6.056036 174 167 149 
3.531277 2.974449 -6.056036 174 167 149 
3.545374 2.974449 -6.056036 175 168 150 
3.559471 2.974449 -6.056036 176 169 151 
3.573568 2.974449 -6.056036 176 169 151 
3.587665 2.974449 -6.056036 176 169 151 
3.601762 2.974449 -6.056036 175 168 150 
3.615859 2.974449 -6.056036 175 168 150 
inf inf -inf 173 166 148 
inf inf -inf 173 166 148 
inf inf -inf 173 166 148 
inf inf -inf 173 166 148 
-3.574879 8.115942 -16.602900 202 195 174 
-27.622641 63.396225 -129.690567 202 195 173 
-28.959999 67.199997 -137.472000 203 193 173 
-28.639999 67.199997 -137.472000 203 194 175 
-28.320000 67.199997 -137.472000 202 195 176 
-29.166666 70.000000 -143.199997 201 194 175 
-0.687161 3.037975 -6.214828 206 200 178 
-0.670875 3.029757 -6.198016 206 200 178 
-0.656447 3.029757 -6.198016 205 200 178 
-0.642599 3.032491 -6.203610 205 200 178 
-0.629295 3.037975 -6.214828 205 199 178 
-0.614828 3.037975 -6.214828 206 198 178 
-0.600362 3.037975 -6.214828 205 198 177 
-0.585895 3.037975 -6.214828 206 199 176 
-0.571429 3.037975 -6.214828 196 189 166 
-0.556962 3.037975 -6.214828 190 182 160 
-0.542495 3.037975 -6.214828 204 194 175 
-0.528507 3.040724 -6.220453 206 197 178 
-0.514027 3.040724 -6.220453 204 196 177 
-0.499548 3.040724 -6.220453 203 196 177 
-0.485068 3.040724 -6.220453 203 196 177 
-0.471014 3.043478 -6.226087 203 196 177 
-0.456522 3.043478 -6.226087 204 197 178 
-0.442430 3.046237 -6.231732 204 197 178 
-0.402194 3.071298 -6.282998 206 198 179 
-0.387569 3.071298 -6.282998 206 198 179 
-0.373285 3.074108 -6.288747 206 198 179 
0.228571 5.647059 -11.552269 204 196 177 
0.255462 5.647059 -11.552269 204 196 177 
0.282353 5.647059 -11.552269 204 196 177 
0.310287 5.666104 -11.591231 204 196 177 
0.337268 5.666104 -11.591231 205 197 178 
0.364250 5.666104 -11.591231 205 197 178 
1.213235 3.088235 -6.317647 203 195 177 
1.226814 3.085399 -6.311846 203 195 178 
1.232452 3.062899 -6.265816 203 196 178 
1.243636 3.054545 -6.248727 203 196 178 
1.258182 3.054545 -6.248727 202 195 177 
1.270417 3.049002 -6.237387 202 195 177 
1.282609 3.043478 -6.226087 202 195 177 
1.295928 3.040724 -6.220453 202 195 177 
1.308040 3.035230 -6.209214 202 195 177 
1.318919 3.027027 -6.192432 202 195 177 
1.332133 3.024302 -6.186859 201 194 176 
1.348963 3.029757 -6.198016 201 194 176 
1.845588 3.088235 -6.317647 200 195 176 
1.858586 3.085399 -6.311846 199 193 175 
1.869844 3.079743 -6.300275 198 191 173 
1.884510 3.079743 -6.300275 198 191 173 
1.899175 3.079743 -6.300275 198 191 173 
1.917355 3.085399 -6.311846 198 191 173 
1.255732 1.975309 -4.040917 198 191 173 
1.263652 1.972989 -4.036171 198 191 173 
1.273048 1.972989 -4.036171 198 191 173 
1.283196 1.974148 -4.038543 197 190 172 
1.293357 1.975309 -4.040917 197 189 171 
1.303529 1.976471 -4.043294 197 189 170 
1.312941 1.976471 -4.043294 197 189 170 
1.322353 1.976471 -4.043294 196 189 170 
1.331765 1.976471 -4.043294 196 188 169 
1.339600 1.974148 -4.038543 196 188 169 
1.348209 1.972989 -4.036171 196 188 169 
1.354423 1.968366 -4.026713 196 188 169 
1.705556 2.333333 -4.773334 194 186 167 
1.716667 2.333333 -4.773334 193 185 166 
1.726579 2.331714 -4.770021 194 186 167 
1.736477 2.330097 -4.766713 194 186 167 
1.747573 2.330097 -4.766713 194 186 167 
1.757450 2.328482 -4.763410 194 186 167 
1.769764 2.330097 -4.766713 194 186 167 
1.780860 2.330097 -4.766713 193 185 166 
1.793199 2.331714 -4.770021 191 184 165 
1.959307 2.532027 -5.179804 191 184 165 
1.972851 2.533937 -5.183711 191 184 165 
1.984917 2.533937 -5.183711 190 183 164 
1.996983 2.533937 -5.183711 189 183 164 
2.009050 2.533937 -5.183711 188 183 164 
1.864997 2.338205 -4.783298 188 183 164 
1.877437 2.339833 -4.786630 188 183 164 
1.889895 2.341463 -4.789965 188 183 164 
1.920668 2.338205 -4.783298 188 183 164 
1.930459 2.336579 -4.779972 188 183 164 
1.938889 2.333333 -4.773334 188 183 164 
1.950000 2.333333 -4.773334 188 183 164 
1.961111 2.333333 -4.773334 187 182 163 
1.973593 2.334955 -4.776650 187 182 163 
1.984712 2.334955 -4.776650 187 182 163 
1.997218 2.336579 -4.779972 186 181 162 
1.917774 2.125237 -4.347628 184 179 160 
1.924242 2.121212 -4.339394 184 179 160 
1.930687 2.117202 -4.331191 183 178 159 
1.940769 2.117202 -4.331191 183 178 159 
1.941066 2.106583 -4.309467 183 178 159 
1.951097 2.106583 -4.309467 183 178 159 
1.961128 2.106583 -4.309467 183 178 159 
1.969925 2.105263 -4.306767 183 178 159 
1.979950 2.105263 -4.306767 183 178 159 
1.987484 2.102628 -4.301377 182 177 158 
1.995000 2.100000 -4.296000 182 177 158 
2.005000 2.100000 -4.296000 182 177 158 
2.012484 2.097378 -4.290637 182 177 158 
2.011173 2.085661 -4.266667 182 177 158 
2.021105 2.085661 -4.266667 182 177 158 
2.406409 2.447196 -5.006264 181 176 157 
2.414546 2.443636 -4.998982 181 176 157 
2.424419 2.441860 -4.995349 181 176 157 
2.436047 2.441860 -4.995349 180 175 156 
2.447675 2.441860 -4.995349 180 175 156 
2.459302 2.441860 -4.995349 180 175 156 
2.470930 2.441860 -4.995349 179 174 155 
2.480755 2.440087 -4.991721 180 175 156 
2.490566 2.438316 -4.988099 180 175 156 
2.500363 2.436548 -4.984482 179 174 155 
2.510145 2.434783 -4.980870 179 174 155 
2.518090 2.431259 -4.973661 179 174 155 
2.529667 2.431259 -4.973661 179 174 155 
2.532084 2.422495 -4.955732 179 174 155 
2.538130 2.417266 -4.945036 179 174 155 
2.549640 2.417266 -4.945036 178 173 154 
2.564842 2.420749 -4.952161 178 173 154 
3.493357 2.976085 -6.088220 175 168 149 
3.492064 2.962963 -6.061376 175 168 150 
3.506173 2.962963 -6.061376 175 168 150 
3.517181 2.960352 -6.056036 174 167 149 
3.531277 2.960352 -6.056036 174 167 149 
3.545374 2.960352 -6.056036 175 168 150 
3.559471 2.960352 -6.056036 176 169 151 
3.576720 2.962963 -6.061376 176 169 151 
3.590829 2.962963 -6.061376 176 169 151 
3.604938 2.962963 -6.061376 175 168 150 
3.619048 2.962963 -6.061376 175 168 150 
inf inf -inf 173 166 148 
inf inf -inf 173 166 148 
inf inf -inf 173 167 148 
inf inf -inf 173 166 148 
-inf inf -inf 201 193 174 
-inf inf -inf 201 193 174 
-inf inf -inf 202 194 175 
-inf inf -inf 202 194 173 
-inf inf -inf 202 195 174 
-inf inf -inf 202 194 173 
-inf inf -inf 203 193 173 
-inf inf -inf 203 194 175 
-inf inf -inf 202 194 175 
-inf inf -inf 202 194 175 
-inf inf -inf 203 195 176 
-0.672694 3.023508 -6.214828 206 200 178 
-0.657040 3.018050 -6.203610 206 200 178 
-0.643180 3.020777 -6.209214 205 199 177 
-0.629295 3.023508 -6.214828 206 200 178 
-0.614828 3.023508 -6.214828 206 199 179 
-0.600362 3.023508 -6.214828 205 198 177 
-0.585895 3.023508 -6.214828 205 199 176 
-0.571946 3.026244 -6.220453 195 189 165 
-0.557466 3.026244 -6.220453 190 182 161 
-0.542986 3.026244 -6.220453 204 195 176 
-0.528507 3.026244 -6.220453 205 197 178 
-0.514027 3.026244 -6.220453 204 196 177 
-0.499548 3.026244 -6.220453 203 197 176 
-0.485068 3.026244 -6.220453 204 197 176 
-0.471442 3.031732 -6.231732 204 198 177 
-0.456522 3.028986 -6.226087 204 198 177 
-0.387923 3.059469 -6.288747 206 198 179 
0.094288 3.031732 -6.231732 206 198 179 
0.108794 3.031732 -6.231732 205 197 178 
0.123300 3.031732 -6.231732 205 197 178 
0.137681 3.028986 -6.226087 204 196 177 
0.152174 3.028986 -6.226087 204 196 177 
0.166969 3.034483 -6.237387 204 196 177 
0.336700 5.629630 -11.571717 205 197 178 
0.364250 5.639123 -11.591231 206 198 179 
0.210335 3.031732 -6.231732 205 197 178 
0.224841 3.031732 -6.231732 206 198 179 
0.296296 3.020777 -6.209214 205 198 178 
0.311594 3.028986 -6.226087 205 198 179 
0.326087 3.028986 -6.226087 204 197 179 
1.212121 3.070707 -6.311846 203 195 178 
1.221207 3.056673 -6.282998 203 196 178 
1.232452 3.048314 -6.265816 203 196 178 
1.244768 3.042766 -6.254413 203 196 178 
1.258182 3.040000 -6.248727 202 195 177 
